-11.870536 -259.258179 954.807373 211 181 178
-9.873899 -256.029541 942.916870 255 255 255
-7.955737 -253.816940 934.768188 254 253 251
-0.620577 -252.259781 929.033447 254 255 254
34.632660 -271.587494 1000.214294 254 255 254
36.545536 -271.229187 998.894775 254 255 254
68.642822 -228.181717 840.357666 254 255 254
70.057274 -227.424469 837.568848 254 255 254
71.541245 -226.922440 835.719910 254 255 254
72.938354 -226.173523 832.961792 254 255 254
74.407860 -225.676971 831.133057 254 255 254
76.288712 -226.422607 833.879150 254 255 254
77.923729 -226.422607 833.879150 254 255 254
79.471222 -226.173523 832.961792 254 255 254
80.749107 -225.182617 829.312439 254 255 254
82.556015 -225.676971 831.133057 254 255 254
84.278160 -225.924973 832.046448 254 255 254
86.098808 -226.422607 833.879150 254 255 254
87.541000 -225.924973 832.046448 254 255 254
89.172424 -225.924973 832.046448 254 255 254
90.803848 -225.924973 832.046448 254 255 254
92.333801 -225.676971 831.133057 254 255 254
93.552666 -224.690414 827.499695 254 255 254
94.555138 -223.226624 822.108826 254 255 254
95.958694 -222.742935 820.327454 254 255 254
97.672958 -222.984512 821.217163 254 255 254
273.321747 -422.159607 1554.747925 255 255 250
267.579102 -408.731079 1505.292725 255 255 249
262.190521 -396.130493 1458.886841 254 254 247
257.124237 -384.283600 1415.256470 254 254 246
225.397018 -310.093109 1142.024536 253 253 240
222.272202 -302.786041 1115.113770 253 253 240
219.291245 -295.815430 1089.442017 254 251 239
217.669037 -290.794525 1070.950806 253 250 238
216.401962 -286.339447 1054.543457 253 250 236
191.261292 -231.001938 850.744080 252 248 232
288.801178 -237.130020 873.312866 244 236 221
4192.055176 -2937.024658 10816.603516 246 239 224
763.415039 -474.807678 1748.642578 237 230 216
976.825684 -594.195740 2188.330078 235 228 214
546.109131 -262.905029 968.238159 255 247 232
-1011.745361 -412.337646 1529.620728 254 255 254
-1018.262512 -419.973511 1557.947021 254 255 254
-1013.123169 -419.111145 1554.747925 254 255 254
-1014.239990 -420.839447 1561.159302 254 255 254
-1011.178955 -420.839447 1561.159302 254 255 254
-1010.200867 -421.708954 1564.384766 254 255 254
-1009.218689 -422.582062 1567.623657 254 255 254
-1008.232422 -423.458771 1570.875977 254 255 254
-1005.152344 -423.458771 1570.875977 254 255 254
-1004.155579 -424.339142 1574.141846 254 255 254
-1003.154663 -425.223206 1577.421387 254 255 254
-995.912109 -423.458771 1570.875977 254 255 254
-994.896179 -424.339142 1574.141846 254 255 254
-998.034424 -427.002380 1584.021484 254 255 254
-999.108948 -428.796509 1590.677002 254 255 254
-1002.307129 -431.516144 1600.765869 254 255 254
-38.176552 -258.036835 957.221558 76 58 50
-36.391708 -258.690918 959.647949 74 56 50
-34.597794 -259.348328 962.086731 75 58 53
-32.753014 -259.678284 963.310730 77 59 55
-30.942953 -260.340729 965.768188 74 55 53
-29.086439 -260.673218 967.001587 76 58 54
-27.190405 -260.673218 967.001587 81 62 57
-25.294373 -260.673218 967.001587 81 63 58
-23.398338 -260.673218 967.001587 85 67 62
-21.502306 -260.673218 967.001587 88 70 63
-19.606272 -260.673218 967.001587 91 74 66
-17.687649 -260.340729 965.768188 100 78 76
-15.713861 -259.019196 960.865784 114 92 90
-13.829859 -259.019196 960.865784 159 116 123
-11.900550 -258.036835 957.221558 248 208 214
-9.973259 -256.738525 952.405334 252 255 255
-8.005151 -253.549225 940.574219 255 255 254
-0.625180 -252.295593 935.923645 254 255 254
1.198071 -249.825134 926.759155 254 255 254
36.642220 -269.982971 1001.537354 254 255 254
67.069542 -226.785706 841.291382 254 255 254
68.795532 -227.037964 842.227173 254 255 254
70.134857 -226.032257 838.496399 254 255 254
71.620300 -225.532745 836.643372 254 255 254
73.099190 -225.035431 834.798523 254 255 254
74.818497 -225.283813 835.719910 254 255 254
76.626274 -225.782227 837.568848 254 255 254
78.182037 -225.532745 836.643372 254 255 254
79.734367 -225.283813 835.719910 254 255 254
81.462914 -225.532745 836.643372 254 255 254
83.103348 -225.532745 836.643372 254 255 254
84.743782 -225.532745 836.643372 254 255 254
86.384216 -225.532745 836.643372 254 255 254
88.024651 -225.532745 836.643372 254 255 254
89.665085 -225.532745 836.643372 254 255 254
91.305527 -225.532745 836.643372 254 255 254
92.741005 -225.035431 834.798523 254 255 254
94.066689 -224.293549 832.046448 254 255 254
94.657913 -221.855576 823.002441 254 255 254
96.062775 -221.374329 821.217163 254 255 254
inf -inf inf 254 254 244
inf -inf inf 254 253 243
14646.904297 -20410.712891 75716.226562 254 254 241
1285.747559 -1673.009277 6206.248047 251 248 235
1172.931763 -1511.904663 5608.609375 252 250 236
829.718018 -1030.844116 3824.051758 252 248 232
717.825562 -875.996277 3249.623291 251 247 231
721.102356 -872.252686 3235.736084 251 247 231
289.762543 -237.610168 881.446167 245 237 222
290.813721 -237.058228 879.398682 245 237 222
289.844910 -234.875870 871.302917 246 238 223
293.580322 -236.508850 877.360657 246 238 223
296.330719 -237.333878 880.421204 246 238 223
295.991913 -235.689529 874.321289 246 238 223
392.876038 -309.253235 1147.215576 246 238 223
971.211731 -586.514771 2175.753662 236 229 217
528.080566 -297.966614 1105.346313 238 231 216
530.247864 -297.966614 1105.346313 238 231 216
532.415161 -297.966614 1105.346313 239 232 217
-1023.215942 -415.210114 1551.562012 254 255 254
-1020.362061 -417.778442 1561.159302 254 255 254
-1013.123169 -416.062714 1554.747925 254 255 254
-1014.239990 -417.778442 1561.159302 254 255 254
-1011.178955 -417.778442 1561.159302 254 255 254
-1010.200867 -418.641602 1564.384766 254 255 254
-1009.218689 -419.508362 1567.623657 254 255 254
-1008.232422 -420.378723 1570.875977 254 255 254
-1005.152344 -420.378723 1570.875977 254 255 254
-1004.155579 -421.252686 1574.141846 254 255 254
-1003.154663 -422.130280 1577.421387 254 255 254
-995.912109 -420.378723 1570.875977 254 255 254
-994.896179 -421.252686 1574.141846 254 255 254
-998.034424 -423.896515 1584.021484 254 255 254
-999.108948 -425.677612 1590.677002 254 255 254
-1000.192566 -427.473694 1597.388672 254 255 254
-38.176552 -256.159973 957.221558 75 58 53
-36.345642 -256.484222 958.433228 73 55 50
-34.553886 -257.135193 960.865784 76 58 53
-32.753014 -257.789490 963.310730 76 58 54
-30.942953 -258.447113 965.768188 77 59 54
-29.123634 -259.108093 968.238159 76 59 55
-27.225176 -259.108093 968.238159 79 63 59
-25.326717 -259.108093 968.238159 85 67 62
-23.428261 -259.108093 968.238159 87 69 64
-21.529802 -259.108093 968.238159 93 74 68
-19.631344 -259.108093 968.238159 99 80 74
-17.687649 -258.447113 965.768188 106 82 77
-15.733829 -257.461914 962.086731 120 96 91
-13.865049 -257.789490 963.310730 170 133 133
-11.930716 -256.809296 959.647949 255 223 223
-9.998412 -255.513916 954.807373 253 255 255
-8.045127 -252.961975 945.271240 255 255 254
-6.168598 -252.018082 941.744080 254 255 254
-4.327470 -252.331924 942.916870 254 255 254
-2.466375 -251.081207 938.243164 254 255 254
-0.626729 -251.081207 938.243164 254 255 254
1.203965 -249.228210 931.318848 254 255 254
4.826420 -247.704819 925.626221 254 255 254
36.788204 -269.087036 1005.527527 254 255 254
63.770443 -225.136154 841.291382 254 255 254
65.565697 -225.637573 843.165100 254 255 254
67.218918 -225.637573 843.165100 254 255 254
69.025871 -226.141220 845.047119 254 255 255
70.290543 -224.886276 840.357666 254 255 255
71.699524 -224.139969 837.568848 255 255 255
73.341774 -224.139969 837.568848 255 255 255
74.984024 -224.139969 837.568848 255 255 255
76.796181 -224.636963 839.425964 255 255 255
78.442070 -224.636963 839.425964 255 255 255
79.999268 -224.388199 838.496399 255 255 255
81.733849 -224.636963 839.425964 254 255 255
83.379745 -224.636963 839.425964 254 255 255
85.025635 -224.636963 839.425964 254 255 255
86.575546 -224.388199 838.496399 254 255 254
88.219612 -224.388199 838.496399 254 255 254
89.863686 -224.388199 838.496399 254 255 254
91.406525 -224.139969 837.568848 254 255 254
92.843369 -223.645187 835.719910 254 255 254
94.066689 -222.662125 832.046448 254 255 254
94.555138 -220.002762 822.108826 254 255 254
95.751213 -219.051392 818.553772 254 255 254
1691.120972 -2226.621338 8320.463867 254 251 238
1452.117798 -1893.668579 7076.282715 254 251 236
1285.747559 -1660.840454 6206.248047 253 249 235
1164.307251 -1489.871582 5567.369629 252 248 233
875.266541 -1089.368530 4070.764648 252 248 232
746.706116 -912.714111 3410.640625 252 248 232
717.825562 -869.624634 3249.623291 250 246 230
706.016541 -847.793030 3168.042969 251 247 231
303.712036 -268.019226 1001.537354 247 239 224
288.706451 -236.432373 883.503174 245 237 222
290.438782 -236.432373 883.503174 246 238 223
291.830566 -236.156799 882.473450 245 237 222
291.522247 -234.516830 876.345215 246 238 223
294.604431 -235.607605 880.421204 247 239 224
297.021454 -236.156799 882.473450 247 239 224
298.056976 -235.607605 880.421204 246 238 223
394.670013 -308.405701 1152.453979 246 238 222
528.080566 -295.799316 1105.346313 238 231 216
529.474915 -295.368134 1103.735107 239 232 217
533.193542 -296.231781 1106.962402 240 233 218
441.337585 -235.607605 880.421204 245 237 222
406.613647 -211.285233 789.533081 247 239 224
-1023.215942 -412.167908 1551.562012 254 255 254
-1020.362061 -414.717407 1561.159302 254 255 254
-1013.123169 -413.014252 1554.747925 254 255 254
-1012.153076 -413.864075 1557.947021 254 255 254
-1011.178955 -414.717407 1561.159302 254 255 254
-1010.200867 -415.574249 1564.384766 254 255 254
-1007.133484 -415.574249 1564.384766 254 255 254
-1006.144958 -416.434662 1567.623657 254 255 254
-1003.071289 -416.434662 1567.623657 254 255 254
-1002.072266 -417.298645 1570.875977 254 255 254
-1003.154663 -419.037384 1577.421387 254 255 254
-993.850220 -416.434662 1567.623657 254 255 254
-992.832031 -417.298645 1570.875977 254 255 254
-998.034424 -420.790680 1584.021484 254 255 254
-997.014404 -421.672852 1587.342285 254 255 254
-1000.192566 -424.341644 1597.388672 254 255 254
-38.615925 -257.209656 968.238159 77 61 56
-34.553886 -255.251190 960.865784 75 57 52
-32.753014 -255.900696 963.310730 78 61 55
-30.942953 -256.553497 965.768188 78 60 54
-29.086439 -256.881165 967.001587 74 58 54
-27.225176 -257.209656 968.238159 77 61 58
-25.326717 -257.209656 968.238159 84 66 61
-23.428261 -257.209656 968.238159 90 72 67
-21.529802 -257.209656 968.238159 94 74 69
-19.631344 -257.209656 968.238159 100 80 74
-17.687649 -256.553497 965.768188 113 89 82
-15.773914 -256.226685 964.537903 131 107 99
-13.882712 -256.226685 964.537903 183 145 141
-11.961036 -255.575531 962.086731 255 235 231
-10.011036 -253.962051 956.012939 253 255 254
-8.075372 -252.052567 948.824890 255 255 254
-6.183981 -250.795441 944.092590 254 255 254
-4.327470 -250.483124 942.916870 254 255 254
-2.469435 -249.550797 939.407227 254 255 254
-0.627507 -249.550797 939.407227 254 255 254
1.209918 -248.625397 935.923645 254 255 254
4.856103 -247.402145 931.318848 254 255 254
6.641328 -245.889908 925.626221 254 255 254
36.886173 -267.826813 1008.205383 254 255 254
38.914814 -268.183929 1009.549683 254 255 254
63.983723 -224.234055 844.105042 255 255 255
65.859055 -224.986511 846.937622 255 255 254
67.595284 -225.238464 847.886047 255 255 254
69.257759 -225.238464 847.886047 254 255 253
70.525360 -223.984344 843.165100 254 254 253
71.858505 -222.991074 839.425964 253 253 252
73.585976 -223.238556 840.357666 253 253 252
75.150284 -222.991074 839.425964 253 253 251
76.796181 -222.991074 839.425964 253 253 252
78.529129 -223.238556 840.357666 253 253 252
80.176849 -223.238556 840.357666 253 254 252
81.824570 -223.238556 840.357666 254 254 253
83.379745 -222.991074 839.425964 254 254 253
85.025635 -222.991074 839.425964 254 255 254
86.575546 -222.744125 838.496399 255 255 254
88.219612 -222.744125 838.496399 255 255 255
89.863686 -222.744125 838.496399 255 255 255
91.406525 -222.497726 837.568848 255 255 255
92.843369 -222.006561 835.719910 255 255 255
94.170174 -221.273865 832.961792 255 255 255
94.760918 -218.866104 823.897949 255 255 255
95.134132 -216.045059 813.278442 255 255 255
1654.752808 -2162.773682 8141.529297 253 250 236
1438.672241 -1862.388306 7010.761719 255 250 237
1275.294312 -1635.267822 6155.790527 254 250 235
1155.808716 -1468.160156 5526.731934 253 249 232
1065.535889 -1340.919678 5047.748047 252 248 232
937.877808 -1169.406616 4402.105957 252 248 231
884.780273 -1093.140991 4115.012207 251 247 230
717.825562 -863.252991 3249.623291 251 247 231
304.114319 -266.407867 1002.863892 250 242 227
288.706451 -234.700058 883.503174 246 238 223
290.438782 -234.700058 883.503174 247 239 224
292.171082 -234.700058 883.503174 246 238 223
293.219116 -234.153595 881.446167 247 239 224
294.947388 -234.153595 881.446167 246 238 223
297.368042 -234.700058 883.503174 246 238 223
299.449768 -234.974228 884.535339 246 238 223
976.825684 -581.323547 2188.330078 236 229 214
527.310791 -293.204010 1103.735107 238 231 216
529.474915 -293.204010 1103.735107 239 232 217
531.639038 -293.204010 1103.735107 241 234 219
406.613647 -209.737167 789.533081 247 239 224
581.369690 -266.407867 1002.863892 253 245 229
-1023.215942 -409.125702 1551.562012 254 255 254
-933.007874 -375.288239 1423.237305 254 255 254
-1018.262512 -410.809357 1557.947021 254 255 254
-1013.123169 -409.965820 1554.747925 254 255 254
-1012.153076 -410.809357 1557.947021 254 255 254
-1009.098389 -410.809357 1557.947021 254 255 254
-1008.117981 -411.656403 1561.159302 254 255 254
-1007.133484 -412.506927 1564.384766 254 255 254
-1006.144958 -413.360962 1567.623657 254 255 254
-1003.071289 -413.360962 1567.623657 254 255 254
-1002.072266 -414.218567 1570.875977 254 255 254
-1003.154663 -415.944489 1577.421387 254 255 254
-993.850220 -413.360962 1567.623657 254 255 254
-990.776489 -413.360962 1567.623657 254 255 254
-998.034424 -417.684845 1584.021484 254 255 254
-997.014404 -418.560486 1587.342285 254 255 254
-998.086853 -420.322845 1594.025757 254 255 254
-36.253860 -252.087555 956.012939 74 56 51
-34.510094 -253.046066 959.647949 76 58 53
-32.753014 -254.011902 963.310730 77 59 55
-30.942953 -254.659882 965.768188 76 57 54
-29.086439 -254.985123 967.001587 76 59 54
-27.225176 -255.311188 968.238159 77 60 55
-25.326717 -255.311188 968.238159 78 60 55
-23.428261 -255.311188 968.238159 89 71 66
-21.529802 -255.311188 968.238159 94 75 69
-19.631344 -255.311188 968.238159 98 78 72
-17.687649 -254.659882 965.768188 116 90 83
-15.773914 -254.335480 964.537903 140 113 107
-13.918172 -254.985123 967.001587 206 180 179
-11.976253 -254.011902 963.310730 255 248 247
-10.036381 -252.725754 958.433228 253 255 254
-8.095661 -250.820786 951.208862 255 255 255
-6.191701 -249.255112 945.271240 254 255 254
-4.327470 -248.634308 942.916870 254 255 254
-2.475578 -248.325058 941.744080 254 255 254
-0.628286 -248.016586 940.574219 254 255 254
1.212917 -247.401917 938.243164 254 255 254
8.466585 -244.373749 926.759155 254 255 254
20.553822 -415.079742 1574.141846 254 255 254
36.935356 -266.204468 1009.549683 253 253 252
44.398224 -232.696213 882.473450 255 255 254
64.270325 -223.575974 847.886047 213 215 214
66.006721 -223.826630 848.836609 222 223 223
67.899422 -224.581940 851.701050 230 233 232
69.413223 -224.077835 849.789246 235 238 237
70.682785 -222.827393 845.047119 244 247 246
71.938255 -221.590836 840.357666 248 251 250
73.749680 -222.083817 842.227173 254 255 255
75.233696 -221.590836 840.357666 255 255 255
76.796181 -221.345169 839.425964 255 255 255
78.616386 -221.837051 841.291382 255 255 255
80.176849 -221.590836 840.357666 255 255 255
81.733849 -221.345169 839.425964 255 255 255
83.379745 -221.345169 839.425964 254 255 255
85.025635 -221.345169 839.425964 254 255 255
86.575546 -221.100052 838.496399 252 254 254
88.219612 -221.100052 838.496399 252 253 253
89.963310 -221.345169 839.425964 250 252 251
91.406525 -220.855469 837.568848 250 252 251
92.741005 -220.124969 834.798523 250 252 251
94.066689 -219.399292 832.046448 251 253 252
302.548706 -264.792236 1004.193970 252 244 229
303.310852 -263.742859 1000.214294 251 243 228
292.512421 -233.239899 884.535339 247 239 224
293.560852 -232.696213 882.473450 247 239 224
295.291168 -232.696213 882.473450 246 238 223
297.368042 -232.967743 883.503174 246 238 223
299.449768 -233.239899 884.535339 246 238 223
976.825684 -577.032776 2188.330078 237 230 215
597.001038 -337.822937 1281.154419 236 229 214
406.190094 -207.972244 788.710693 248 240 225
557.289368 -267.991058 1016.325134 252 244 228
582.140686 -264.792236 1004.193970 253 245 229
-1019.039551 -404.426025 1545.229126 254 255 254
-931.257385 -371.798798 1420.567017 254 255 254
-1013.123169 -406.917358 1554.747925 254 255 254
-1012.153076 -407.754639 1557.947021 254 255 254
-1009.098389 -407.754639 1557.947021 254 255 254
-1008.117981 -408.595367 1561.159302 254 255 254
-1007.133484 -409.439575 1564.384766 254 255 254
-1004.066162 -409.439575 1564.384766 254 255 254
-1003.071289 -410.287292 1567.623657 254 255 254
-1002.072266 -411.138489 1570.875977 254 255 254
-1001.069092 -411.993256 1574.141846 254 255 254
-993.850220 -410.287292 1567.623657 254 255 254
-990.776489 -410.287292 1567.623657 254 255 254
-998.034424 -414.578979 1584.021484 254 255 254
-997.014404 -415.448120 1587.342285 254 255 254
-998.086853 -417.197388 1594.025757 254 255 254
-34.422836 -250.529404 957.221558 78 60 55
-32.753014 -252.123093 963.310730 76 58 54
-30.942953 -252.766266 965.768188 78 59 56
-29.086439 -253.089081 967.001587 78 59 55
-27.225176 -253.412735 968.238159 79 61 56
-25.326717 -253.412735 968.238159 82 64 59
-23.428261 -253.412735 968.238159 85 67 62
-21.529802 -253.412735 968.238159 97 77 71
-19.631344 -253.412735 968.238159 100 81 75
-17.710239 -253.089081 967.001587 121 93 88
-15.773914 -252.444275 964.537903 153 124 119
-13.918172 -253.089081 967.001587 243 219 220
-11.991509 -252.444275 964.537903 255 248 248
-10.036381 -250.846527 958.433228 254 255 255
-8.095661 -248.955719 951.208862 254 255 254
-6.183981 -247.093216 944.092590 254 255 254
-4.322088 -246.478546 941.744080 254 255 254
-2.472502 -246.172363 940.574219 254 255 254
-0.628286 -246.172363 940.574219 254 255 254
1.212917 -245.562271 938.243164 254 255 254
4.862084 -244.050186 932.465820 254 255 255
44.398224 -230.965912 882.473450 218 222 219
68.052521 -223.414612 853.621460 171 136 122
69.569382 -222.911987 851.701050 173 143 128
70.999748 -222.162277 848.836609 175 154 136
72.339699 -221.170486 845.047119 181 155 141
74.162155 -221.665268 846.937622 192 162 154
75.401062 -220.432434 842.227173 199 172 162
76.881409 -219.943130 840.357666 209 184 173
78.703835 -220.432434 842.227173 214 195 184
80.355217 -220.432434 842.227173 225 208 197
81.824570 -219.943130 840.357666 234 222 212
83.472282 -219.943130 840.357666 238 226 216
85.120003 -219.943130 840.357666 243 237 229
86.671524 -219.699280 839.425964 250 246 238
88.317421 -219.699280 839.425964 253 252 249
90.063156 -219.943130 840.357666 255 255 255
91.507751 -219.455978 838.496399 255 255 255
295.635712 -231.235428 883.503174 246 238 223
297.021454 -230.965912 882.473450 246 238 223
299.449768 -231.505554 884.535339 245 237 222
654.838013 -372.497650 1423.237305 236 229 214
593.985901 -333.617432 1274.683960 236 229 214
597.491089 -334.180023 1276.833496 235 229 213
431.089752 -225.962097 863.354919 244 236 221
406.613647 -206.641037 789.533081 249 241 226
554.793274 -266.714355 1019.060913 252 244 228
556.791382 -266.714355 1019.060913 252 244 228
-1010.788208 -398.146088 1532.717041 254 255 254
-931.257385 -369.013428 1420.567017 254 255 254
-1013.123169 -403.868927 1554.747925 254 255 254
-1010.074768 -403.868927 1554.747925 254 255 254
-1009.098389 -404.699921 1557.947021 254 255 254
-1008.117981 -405.534363 1561.159302 254 255 254
-1007.133484 -406.372223 1564.384766 254 255 254
-1004.066162 -406.372223 1564.384766 254 255 254
-1003.071289 -407.213593 1567.623657 254 255 254
-1002.072266 -408.058411 1570.875977 254 255 254
-1001.069092 -408.906769 1574.141846 254 255 254
-993.850220 -407.213593 1567.623657 254 255 254
-990.776489 -407.213593 1567.623657 254 255 254
-994.928589 -411.473145 1584.021484 254 255 254
-995.990051 -413.202026 1590.677002 254 255 254
-34.379375 -248.338593 956.012939 78 60 55
-32.711399 -249.916336 962.086731 80 62 57
-30.942953 -250.872650 965.768188 78 59 55
-29.086439 -251.193054 967.001587 80 64 58
-27.190405 -251.193054 967.001587 79 64 56
-25.326717 -251.514267 968.238159 81 63 58
-23.428261 -251.514267 968.238159 87 69 64
-21.529802 -251.514267 968.238159 94 74 68
-19.631344 -251.514267 968.238159 104 84 78
-17.687649 -250.872650 965.768188 128 102 94
-15.794034 -250.872650 965.768188 169 144 135
-13.918172 -251.193054 967.001587 251 246 246
-11.991509 -250.553070 964.537903 253 252 251
-10.036381 -248.967285 958.433228 255 255 255
-8.105844 -247.401459 952.405334 254 255 254
-6.207200 -246.162903 947.637329 254 255 254
-4.322088 -244.632034 941.744080 255 255 255
-2.469435 -244.025009 939.407227 255 255 255
-0.627507 -244.025009 939.407227 255 255 255
1.211416 -243.420990 937.081970 255 255 255
31.264736 -200.493546 771.826965 204 193 189
44.450031 -229.503113 883.503174 142 136 131
69.804947 -221.991150 854.584900 143 111 97
71.319565 -221.491165 852.660156 140 118 100
72.827385 -220.993439 850.744080 142 115 101
74.495468 -220.993439 850.744080 146 113 104
75.653526 -219.513580 845.047119 149 121 109
77.138252 -219.024673 843.165100 153 125 112
78.967354 -219.513580 845.047119 147 125 113
80.534378 -219.268860 844.105042 151 132 119
82.006599 -218.781052 842.227173 153 139 128
83.657982 -218.781052 842.227173 163 150 138
85.214577 -218.537964 841.291382 163 159 150
86.864128 -218.537964 841.291382 162 159 149
88.415436 -218.295410 840.357666 168 170 168
90.163231 -218.537964 841.291382 170 173 170
91.507751 -217.811920 838.496399 181 186 186
593.985901 -331.118103 1274.683960 235 228 213
431.089752 -224.269287 863.354919 244 236 221
-1006.712463 -393.547516 1526.536743 254 255 254
-931.257385 -366.228088 1420.567017 254 255 254
-1013.123169 -400.820465 1554.747925 254 255 254
-1010.074768 -400.820465 1554.747925 254 255 254
-1009.098389 -401.645203 1557.947021 254 255 254
-1006.043640 -401.645203 1557.947021 254 255 254
-1005.056946 -402.473328 1561.159302 254 255 254
-1004.066162 -403.304901 1564.384766 254 255 254
-1003.071289 -404.139893 1567.623657 254 255 254
-1002.072266 -404.978363 1570.875977 254 255 254
-1001.069092 -405.820312 1574.141846 254 255 254
-993.850220 -404.139893 1567.623657 254 255 254
-990.776489 -404.139893 1567.623657 254 255 254
-994.928589 -408.367310 1584.021484 254 255 254
-995.990051 -410.083130 1590.677002 254 255 254
-34.422836 -246.775681 957.221558 76 58 54
-32.628479 -247.401230 959.647949 77 60 54
-30.942953 -248.979034 965.768188 78 59 55
-29.086439 -249.297028 967.001587 79 63 56
-27.190405 -249.297028 967.001587 79 65 56
-25.326717 -249.615814 968.238159 78 60 55
-23.428261 -249.615814 968.238159 84 66 61
-21.529802 -249.615814 968.238159 92 72 66
-19.631344 -249.615814 968.238159 99 78 73
-17.710239 -249.297028 967.001587 127 103 93
-15.794034 -248.979034 965.768188 201 176 166
-13.918172 -249.297028 967.001587 253 255 255
-12.006804 -248.979034 965.768188 254 255 255
-10.061853 -247.715179 960.865784 255 255 255
-8.126288 -246.153305 954.807373 254 255 255
-6.230594 -245.225586 951.208862 253 255 254
-4.332866 -243.390976 944.092590 253 255 254
-2.472502 -242.483932 940.574219 252 254 253
-0.627507 -242.183090 939.407227 252 253 253
1.211416 -241.583618 937.081970 252 254 253
15.142022 -229.917038 891.828308 238 243 244
16.831186 -229.107468 888.688049 233 239 240
18.551893 -228.838882 887.646240 232 237 239
20.292332 -228.838882 887.646240 218 222 223
29.934473 -200.204681 776.576660 167 121 113
31.328606 -199.386688 773.403748 161 118 109
44.398224 -227.505325 882.473450 146 110 100
68.348175 -238.630280 925.626221 131 102 89
70.601807 -222.830551 864.340454 139 109 100
71.642281 -220.813995 856.518372 136 109 97
72.991409 -219.819336 852.660156 134 106 94
74.579262 -219.572067 851.701050 132 103 92
75.822769 -218.344040 846.937622 133 104 93
77.483391 -218.344040 846.937622 133 104 93
79.232635 -218.588547 847.886047 136 106 97
80.895119 -218.588547 847.886047 140 109 102
82.281174 -217.856659 845.047119 143 117 102
83.844513 -217.613785 844.105042 144 120 103
85.499580 -217.613785 844.105042 144 117 104
87.057594 -217.371460 843.165100 140 113 101
88.612137 -217.129669 842.227173 140 117 107
90.364037 -217.371460 843.165100 146 123 113
91.710876 -216.647690 840.357666 150 126 119
inf -inf inf 255 254 245
430.598755 -222.322968 862.371582 245 237 222
-1004.686829 -389.768555 1523.465332 254 255 254
-929.513428 -362.762115 1417.906860 254 255 254
-1013.123169 -397.772034 1554.747925 254 255 254
-1008.004883 -396.956909 1551.562012 254 255 254
-1007.026306 -397.772034 1554.747925 254 255 254
-1006.043640 -398.590485 1557.947021 254 255 254
-1005.056946 -399.412323 1561.159302 254 255 254
-1001.995911 -399.412323 1561.159302 254 255 254
-1003.071289 -401.066193 1567.623657 254 255 254
-999.997559 -401.066193 1567.623657 254 255 254
-998.992188 -401.898285 1570.875977 254 255 254
-995.912109 -401.898285 1570.875977 254 255 254
-990.776489 -401.066193 1567.623657 254 255 254
-994.928589 -405.261444 1584.021484 254 255 254
-995.990051 -406.964233 1590.677002 254 255 254
-30.864218 -246.456711 963.310730 75 57 53
-29.049339 -247.085419 965.768188 80 62 57
-27.155724 -247.085419 965.768188 83 65 60
-25.262110 -247.085419 965.768188 86 68 62
-23.398338 -247.400986 967.001587 86 69 62
-21.502306 -247.400986 967.001587 94 76 67
-19.606272 -247.400986 967.001587 101 83 75
-17.710239 -247.400986 967.001587 133 106 97
-15.794034 -247.085419 965.768188 225 197 189
-13.918172 -247.400986 967.001587 255 253 252
-12.022139 -247.400986 967.001587 254 252 251
-10.074638 -246.143555 962.086731 254 254 252
-8.136549 -244.589615 956.012939 254 253 252
-6.254165 -244.281174 954.807373 255 255 254
-4.349134 -242.446777 947.637329 255 255 255
-2.472502 -240.639725 940.574219 255 255 255
-0.628286 -240.639725 940.574219 255 255 255
6.429120 -229.248489 896.049988 243 230 224
9.919474 -228.707169 893.934143 227 209 202
11.658477 -228.437469 892.880005 216 195 185
13.393383 -228.168396 891.828308 208 189 180
15.124207 -227.899963 890.779114 195 174 165
16.811455 -227.098450 887.646240 186 167 157
18.530169 -226.832520 886.606812 182 164 152
44.294971 -225.249969 880.421204 127 99 89
58.026222 -239.154282 934.768188 126 99 88
63.290310 -238.271805 931.318848 125 99 85
65.036385 -237.979080 930.174744 112 86 73
66.942451 -238.271805 931.318848 120 92 80
68.181473 -236.237778 923.368591 129 101 88
72.131866 -220.632080 862.371582 136 110 97
73.321686 -219.134583 856.518372 133 106 94
74.663246 -218.147491 852.660156 132 103 92
76.078064 -217.412994 849.789246 132 103 92
77.657120 -217.169250 848.836609 127 98 87
79.410492 -217.412994 849.789246 128 98 88
80.985809 -217.169250 848.836609 138 106 99
82.557594 -216.926056 847.886047 140 112 97
84.031876 -216.441315 845.991333 141 115 97
85.595001 -216.199753 845.047119 146 115 102
87.251915 -216.199753 845.047119 142 110 97
19658.632812 -17610.451172 68832.929688 254 246 231
14515.303711 -12914.331055 50477.484375 253 245 230
14614.276367 -12914.331055 50477.484375 253 245 230
18391.562500 -16142.914062 63096.851562 253 245 229
555.797302 -259.323914 1013.604065 253 244 229
511.815277 -228.977509 894.990845 253 243 228
-1004.686829 -386.781433 1523.465332 254 255 254
-928.472046 -360.657379 1420.567017 254 255 254
-1013.123169 -394.723572 1554.747925 254 255 254
-1008.004883 -393.914703 1551.562012 254 255 254
-1007.026306 -394.723572 1554.747925 254 255 254
-1006.043640 -395.535767 1557.947021 254 255 254
-1005.056946 -396.351288 1561.159302 254 255 254
-1001.995911 -396.351288 1561.159302 254 255 254
-1000.998840 -397.170197 1564.384766 254 255 254
-999.997559 -397.992493 1567.623657 254 255 254
-998.992188 -398.818207 1570.875977 254 255 254
-995.912109 -398.818207 1570.875977 254 255 254
-990.776489 -397.992493 1567.623657 254 255 254
-993.875977 -400.479950 1577.421387 254 255 254
-994.928589 -402.155609 1584.021484 254 255 254
-993.902039 -402.998688 1587.342285 254 255 254
-30.785883 -243.947174 960.865784 75 57 53
-29.012333 -244.879471 964.537903 75 56 51
-27.121130 -244.879471 964.537903 78 59 55
-25.229927 -244.879471 964.537903 80 62 55
-23.398338 -245.504959 967.001587 86 68 61
-21.502306 -245.504959 967.001587 93 75 66
-19.606272 -245.504959 967.001587 102 85 75
-17.710239 -245.504959 967.001587 124 96 88
-15.814205 -245.504959 967.001587 223 194 186
-13.918172 -245.504959 967.001587 255 255 255
-12.006804 -245.191803 965.768188 255 255 255
-10.074638 -244.257156 962.086731 253 255 255
-8.146835 -243.021973 957.221558 251 255 255
-6.262061 -242.715118 956.012939 238 243 243
-4.354585 -240.890198 948.824890 229 234 234
-2.475578 -239.092514 941.744080 218 223 224
-0.628286 -238.795502 940.574219 209 214 213
1.212917 -238.203690 938.243164 198 204 202
4.677739 -227.761108 897.111633 191 179 166
6.436737 -227.761108 897.111633 180 162 154
8.195735 -227.761108 897.111633 178 153 150
9.931199 -227.222672 894.990845 171 140 128
11.672241 -226.954407 893.934143 168 129 113
13.409178 -226.686768 892.880005 162 125 109
15.142022 -226.419769 891.828308 160 122 106
16.850964 -225.887634 889.732361 153 115 94
18.573668 -225.622513 888.688049 151 114 90
58.026222 -237.321457 934.768188 119 90 83
63.134998 -235.865494 929.033447 116 93 83
64.718361 -235.000458 925.626221 111 88 78
66.860207 -236.155258 930.174744 104 82 72
68.098419 -234.141754 922.243896 119 96 86
72.379173 -219.691864 865.328247 121 102 90
73.738762 -218.692123 861.390503 124 104 92
74.831787 -216.964310 854.584900 124 105 92
76.249222 -216.232147 851.701050 121 99 89
77.831635 -215.989197 850.744080 124 99 93
79.499718 -215.989197 850.744080 123 101 92
81.167801 -215.989197 850.744080 125 104 94
82.742912 -215.746780 849.789246 127 108 95
84.220078 -215.263580 847.886047 127 110 94
85.882553 -215.263580 847.886047 128 108 96
24192.171875 -21358.931641 84129.140625 253 245 230
inf -inf inf 252 244 229
inf -inf inf 253 245 229
659.525574 -321.455475 1266.157593 252 244 228
555.054260 -256.992493 1012.248962 255 245 229
579.255798 -264.415924 1041.488647 255 247 232
-1002.669434 -383.023651 1520.406128 254 255 254
-930.217285 -358.544708 1423.237305 254 255 254
-1013.123169 -391.675110 1554.747925 254 255 254
-1008.004883 -390.872498 1551.562012 254 255 254
-1007.026306 -391.675110 1554.747925 254 255 254
-1006.043640 -392.481049 1557.947021 254 255 254
-1005.056946 -393.290283 1561.159302 254 255 254
-1001.995911 -393.290283 1561.159302 254 255 254
-1000.998840 -394.102875 1564.384766 254 255 254
-999.997559 -394.918823 1567.623657 254 255 254
-998.992188 -395.738129 1570.875977 254 255 254
-997.982605 -396.560883 1574.141846 254 255 254
-990.776489 -394.918823 1567.623657 254 255 254
-993.875977 -397.387054 1577.421387 254 255 254
-994.928589 -399.049774 1584.021484 254 255 254
-993.902039 -399.886353 1587.342285 254 255 254
-28.975422 -242.679123 963.310730 71 55 50
-27.121130 -242.988266 964.537903 76 60 56
-25.229927 -242.988266 964.537903 79 61 56
-23.368494 -243.298203 965.768188 83 65 60
-21.502306 -243.608917 967.001587 87 67 61
-19.606272 -243.608917 967.001587 97 77 71
-17.710239 -243.608917 967.001587 112 89 78
-15.814205 -243.608917 967.001587 176 152 142
-13.918172 -243.608917 967.001587 223 198 184
-12.006804 -243.298203 965.768188 218 194 180
-10.074638 -242.370758 962.086731 215 188 174
-8.146835 -241.145111 957.221558 214 187 173
-6.262061 -240.840637 956.012939 201 170 159
-4.354585 -239.029800 948.824890 191 161 150
-2.475578 -237.246002 941.744080 184 153 141
-0.627507 -236.657303 939.407227 176 147 137
1.211416 -236.071518 937.081970 165 135 129
4.683288 -226.270203 898.175842 155 128 116
6.436737 -226.002121 897.111633 149 120 111
8.195735 -226.002121 897.111633 150 119 113
9.931199 -225.467834 894.990845 144 117 106
11.699868 -225.734650 896.049988 141 117 103
13.440878 -225.467834 894.990845 140 111 99
15.177776 -225.201630 893.934143 131 100 87
16.870789 -224.406799 890.779114 134 104 93
18.595493 -224.143112 889.732361 135 105 94
63.057625 -233.757095 927.894897 109 87 78
64.639336 -232.900833 924.496033 105 82 74
66.942451 -234.619659 931.318848 92 70 61
68.098419 -232.333481 922.243896 99 77 68
71.774780 -226.808304 900.311829 105 83 73
74.075851 -217.995178 865.328247 114 94 83
75.171158 -216.265060 858.460571 112 93 81
76.335091 -214.803818 852.660156 116 95 85
78.006927 -214.803818 852.660156 121 97 91
79.678764 -214.803818 852.660156 116 95 85
81.350609 -214.803818 852.660156 118 97 87
82.929062 -214.562195 851.701050 117 98 85
84.503967 -214.321106 850.744080 114 96 80
86.172050 -214.321106 850.744080 112 92 80
207.024094 -194.638550 772.614563 254 247 232
208.326416 -194.440155 771.826965 255 248 233
inf -inf inf 253 245 230
10628.358398 -8293.294922 32920.097656 251 244 227
10247.368164 -7947.741211 31548.425781 251 241 226
1441.503052 -1036.661865 4115.012207 247 239 223
815.357239 -516.926270 2051.930176 247 239 223
812.772644 -512.757507 2035.382324 247 239 223
801.057983 -498.030762 1976.924927 247 239 224
598.385132 -314.243469 1247.384277 241 233 218
659.525574 -318.972870 1266.157593 251 241 226
662.008118 -318.972870 1266.157593 253 243 228
555.797302 -255.349106 1013.604065 255 245 230
517.691711 -225.734650 896.049988 253 244 229
-930.217285 -355.754150 1423.237305 254 255 254
-1013.123169 -388.626709 1554.747925 254 255 254
-1005.943542 -387.037231 1548.389038 254 255 254
-1007.026306 -388.626709 1554.747925 254 255 254
-1006.043640 -389.426331 1557.947021 254 255 254
-1005.056946 -390.229279 1561.159302 254 255 254
-1001.995911 -390.229279 1561.159302 254 255 254
-1000.998840 -391.035553 1564.384766 254 255 254
-997.931458 -391.035553 1564.384766 254 255 254
-998.992188 -392.658081 1570.875977 254 255 254
-997.982605 -393.474426 1574.141846 254 255 254
-990.776489 -391.845154 1567.623657 254 255 254
-994.928589 -395.943939 1584.021484 254 255 254
-995.990051 -397.607574 1590.677002 254 255 254
-27.017878 -240.179184 960.865784 75 60 56
-25.133875 -240.179184 960.865784 73 55 50
-23.309032 -240.790329 963.310730 79 61 56
-21.447523 -241.097076 964.537903 81 61 55
-19.556320 -241.097076 964.537903 86 66 60
-17.665117 -241.097076 964.537903 101 78 67
-15.773914 -241.097076 964.537903 139 116 104
-13.882712 -241.097076 964.537903 155 126 109
-11.976253 -240.790329 963.310730 158 129 112
-10.074638 -240.484375 962.086731 156 122 105
-8.146835 -239.268265 957.221558 162 128 111
-6.254165 -238.664825 954.807373 161 122 109
-4.338275 -236.281158 945.271240 160 120 107
-2.472502 -235.107086 940.574219 159 118 102
-0.626729 -234.524414 938.243164 156 116 103
1.211416 -234.234161 937.081970 152 111 104
4.677739 -224.243134 897.111633 148 114 100
6.444373 -224.509140 898.175842 143 109 99
15.177776 -223.448883 893.934143 120 90 75
16.850964 -222.398590 889.732361 127 97 89
62.980446 -231.653854 926.759155 91 71 67
67.024887 -233.080292 932.465820 74 59 56
68.098419 -230.525223 922.243896 79 64 61
69.232086 -228.300598 913.344055 81 68 63
70.260132 -225.848694 903.534912 83 70 64
75.599731 -215.805252 863.354919 94 78 74
76.680496 -214.096390 856.518372 90 77 70
78.183014 -213.613098 854.584900 91 82 72
79.858627 -213.613098 854.584900 94 82 72
81.442322 -213.372269 853.621460 97 85 73
83.116051 -213.372269 853.621460 96 81 74
84.694290 -213.131989 852.660156 93 77 73
205.090652 -192.730347 771.040955 254 248 232
206.813065 -192.926819 771.826965 255 249 232
208.114273 -192.730347 771.040955 255 249 233
209.412827 -192.534286 770.256592 255 248 233
18804.019531 -14558.553711 58243.250000 251 242 227
13663.158203 -10514.510742 42064.570312 252 243 227
31113.253906 -23657.650391 94645.281250 249 241 225
25039.062500 -18926.121094 75716.226562 249 241 225
22897.748047 -17205.564453 68832.929688 249 241 225
inf -inf inf 248 240 225
31855.550781 -23657.650391 94645.281250 249 240 226
inf -inf inf 248 240 225
inf -inf inf 248 240 224
inf -inf inf 248 240 224
inf -inf inf 248 240 224
inf -inf inf 249 240 225
inf -inf inf 248 238 223
inf -inf inf 248 240 224
inf -inf inf 247 239 223
806.613464 -507.402679 2029.925537 247 239 223
991.241760 -591.441284 2366.132080 246 238 223
989.695496 -587.767700 2351.435547 245 237 222
596.974487 -317.552338 1270.406494 241 233 218
599.372559 -312.312225 1249.442627 242 234 219
658.424500 -315.961945 1264.043823 250 240 225
660.902954 -315.961945 1264.043823 252 242 227
665.603821 -317.020447 1268.278442 251 241 226
-930.217285 -352.963562 1423.237305 254 255 254
-1011.047119 -384.788116 1551.562012 254 255 254
-1003.890625 -383.217560 1545.229126 254 255 254
-1007.026306 -385.578247 1554.747925 254 255 254
-1006.043640 -386.371613 1557.947021 254 255 254
-1005.056946 -387.168274 1561.159302 254 255 254
-1001.995911 -387.168274 1561.159302 254 255 254
-1000.998840 -387.968201 1564.384766 254 255 254
-997.931458 -387.968201 1564.384766 254 255 254
-996.923889 -388.771454 1567.623657 254 255 254
-997.982605 -390.387970 1574.141846 254 255 254
-990.776489 -388.771454 1567.623657 254 255 254
-994.928589 -392.838104 1584.021484 254 255 254
-995.990051 -394.488678 1590.677002 254 255 254
-23.249872 -238.295181 960.865784 81 63 58
-21.393019 -238.597977 962.086731 86 66 62
-19.531439 -238.901535 963.310730 87 67 63
-17.642643 -238.901535 963.310730 95 74 67
-15.753846 -238.901535 963.310730 124 103 97
-13.882712 -239.205872 964.537903 131 101 88
-11.976253 -238.901535 963.310730 127 98 85
-10.061853 -238.295181 960.865784 136 105 95
-8.146835 -237.391418 957.221558 137 107 96
-6.254165 -236.792694 954.807373 135 105 92
-4.332866 -234.135422 944.092590 136 106 93
-2.469435 -232.973465 939.407227 138 107 97
-0.625953 -232.396790 937.081970 138 108 97
1.208424 -231.822968 934.768188 138 107 95
4.672204 -222.220840 896.049988 135 104 96
2927.040771 -15648.050781 63096.851562 102 77 71
2440.605469 -12518.440430 50477.484375 103 78 72
67.273438 -232.109528 935.923645 74 58 54
68.015579 -228.438690 921.121948 77 61 56
69.148674 -226.236877 912.243652 77 62 56
70.176392 -223.810028 902.457947 80 64 59
73.191933 -222.220840 896.049988 86 71 62
75.193001 -217.838287 878.378479 82 65 60
75.772530 -214.601837 865.328247 80 64 59
76.941612 -213.140305 859.434998 82 68 61
78.448647 -212.657547 857.488403 80 69 61
80.129951 -212.657547 857.488403 85 72 63
81.626373 -212.176956 855.550537 81 68 57
83.209862 -211.937485 854.584900 85 70 63
205.090652 -191.218536 771.040955 255 247 232
206.813065 -191.413467 771.826965 254 247 230
208.114273 -191.218536 771.040955 253 246 230
209.412827 -191.024017 770.256592 253 246 231
27821.179688 -20864.068359 84129.140625 250 242 226
27986.134766 -20864.068359 84129.140625 249 241 226
inf -inf inf 251 240 227
inf -inf inf 249 240 225
inf -inf inf 248 241 224
inf -inf inf 248 240 224
inf -inf inf 248 240 224
inf -inf inf 249 241 226
inf -inf inf 248 241 226
inf -inf inf 248 240 225
inf -inf inf 247 239 224
inf -inf inf 249 241 225
inf -inf inf 248 240 224
988.153748 -584.973877 2358.760986 246 236 221
986.631409 -581.351746 2344.155518 247 237 222
997.403564 -584.973877 2358.760986 248 238 223
989.695801 -577.774170 2329.729980 248 238 223
594.483582 -315.061432 1270.406494 241 233 218
597.977844 -315.590942 1272.541626 243 235 220
597.460510 -314.007690 1266.157593 242 234 219
599.943115 -314.007690 1266.157593 242 234 219
658.424500 -313.483490 1264.043823 250 240 225
659.801453 -312.960999 1261.937012 252 241 226
664.490723 -314.007690 1266.157593 251 243 227
518.305115 -222.484131 897.111633 253 243 228
-930.217285 -350.172943 1423.237305 254 255 254
-1003.890625 -380.187775 1545.229126 254 255 254
-1007.026306 -382.529816 1554.747925 254 255 254
-1003.977844 -382.529816 1554.747925 254 255 254
-1005.056946 -384.107239 1561.159302 254 255 254
-1001.995911 -384.107239 1561.159302 254 255 254
-998.934875 -384.107239 1561.159302 254 255 254
-997.931458 -384.900848 1564.384766 254 255 254
-996.923889 -385.697754 1567.623657 254 255 254
-997.982605 -387.301483 1574.141846 254 255 254
-988.729431 -384.900848 1564.384766 254 255 254
-994.928589 -389.732239 1584.021484 254 255 254
-995.990051 -391.369781 1590.677002 254 255 254
-22.593929 -184.813507 751.153015 71 55 50
-21.121119 -184.813507 751.153015 72 56 51
-19.648308 -184.813507 751.153015 77 59 54
-19.506622 -236.711578 962.086731 85 65 61
-17.620226 -236.711578 962.086731 89 68 62
-15.753846 -237.012741 963.310730 116 95 89
-13.865049 -237.012741 963.310730 126 96 82
-11.976253 -237.012741 963.310730 115 85 72
-10.061853 -236.411179 960.865784 132 100 91
-8.157147 -235.812683 958.433228 129 98 87
-6.262061 -235.217194 956.012939 133 103 89
-4.332866 -232.284302 944.092590 130 100 88
-2.466375 -230.845123 938.243164 130 98 89
-0.624408 -229.990143 934.768188 130 99 88
1.203965 -229.141464 931.318848 129 99 84
4.672204 -220.463928 896.049988 129 97 91
6.421520 -220.203323 894.990845 128 97 87
1830.454102 -9314.600586 37858.113281 84 66 61
2539.578369 -12419.467773 50477.484375 83 66 58
3598.024658 -16935.636719 68832.929688 81 65 60
68.098419 -226.908661 922.243896 74 61 56
69.148674 -224.448212 912.243652 78 57 55
70.176392 -222.040543 902.457947 80 61 58
73.019104 -219.943344 893.934143 79 63 59
74.158989 -218.140533 886.606812 83 67 64
75.367874 -216.618622 880.421204 76 61 57
77.469208 -212.905151 865.328247 76 61 57
79.075516 -212.662109 864.340454 76 59 56
80.678162 -212.419632 863.354919 78 63 57
82.183548 -211.936310 861.390503 76 61 53
83.587227 -211.215439 858.460571 75 61 54
194.435822 -188.173752 764.810364 221 217 200
196.530945 -188.745712 767.135010 229 225 207
199.944397 -189.128952 768.692627 240 237 218
206.602463 -189.706741 771.040955 255 249 233
207.902557 -189.513748 770.256592 255 250 234
inf -inf inf 249 241 225
inf -inf inf 249 241 226
inf -inf inf 249 241 225
inf -inf inf 249 240 225
inf -inf inf 249 240 225
inf -inf inf 249 240 225
23463.925781 -15524.334961 63096.851562 247 237 222
1000.622559 -587.671997 2388.524414 247 237 222
995.881104 -582.162537 2366.132080 247 237 222
1009.989136 -587.671997 2388.524414 249 239 224
592.495361 -311.525116 1266.157593 243 235 220
595.974548 -312.046936 1268.278442 243 235 220
596.463135 -311.005035 1264.043823 243 235 220
598.941589 -311.005035 1264.043823 242 234 219
657.327148 -310.486694 1261.937012 251 241 226
659.801453 -310.486694 1261.937012 250 240 225
664.490723 -311.525116 1266.157593 250 241 226
668.090576 -312.046936 1268.278442 250 242 226
519.005859 -221.776199 901.383606 252 242 227
517.691711 -220.463928 896.049988 253 243 228
-997.684937 -370.355560 1517.359253 254 255 254
-930.217285 -347.382355 1423.237305 254 255 254
-1005.943542 -377.929291 1548.389038 254 255 254
-1007.026306 -379.481354 1554.747925 254 255 254
-1006.043640 -380.262177 1557.947021 254 255 254
-1005.056946 -381.046234 1561.159302 254 255 254
-1001.995911 -381.046234 1561.159302 254 255 254
-998.934875 -381.046234 1561.159302 254 255 254
-997.931458 -381.833527 1564.384766 254 255 254
-996.923889 -382.624054 1567.623657 254 255 254
-1000.061768 -385.015472 1577.421387 254 255 254
-988.729431 -381.833527 1564.384766 254 255 254
-994.928589 -386.626404 1584.021484 254 255 254
-995.990051 -388.250885 1590.677002 254 255 254
-999.168457 -390.713348 1600.765869 254 255 254
-21.121119 -183.340698 751.153015 75 56 53
-19.648308 -183.340698 751.153015 74 57 53
-19.506622 -234.825180 962.086731 80 62 57
-17.620226 -234.825180 962.086731 86 66 62
-15.733829 -234.825180 962.086731 106 86 82
-13.865049 -235.123947 963.310730 106 82 72
-11.961036 -234.825180 962.086731 113 90 80
-10.049101 -234.229935 959.647949 119 94 79
-8.157147 -233.933441 958.433228 121 97 83
-6.262061 -233.342697 956.012939 124 100 87
-4.327470 -230.146225 942.916870 120 96 83
-2.460277 -228.439331 935.923645 123 98 88
-0.621339 -227.036148 930.174744 122 96 86
1.192234 -225.100388 922.243896 121 92 84
4.672204 -218.707001 896.049988 121 97 82
6.413939 -218.190582 893.934143 121 95 83
67.440163 -229.005478 938.243164 71 57 52
68.264717 -225.650085 924.496033 74 60 55
69.232086 -222.928131 913.344055 76 59 55
70.260132 -220.533920 903.534912 78 61 56
73.278648 -218.966141 897.111633 80 63 59
74.245926 -216.655823 887.646240 81 65 61
75.543556 -215.393265 882.473450 74 58 54
76.737228 -213.897476 876.345215 76 62 57
77.914436 -212.422318 870.301453 75 60 55
79.529449 -212.178436 869.302246 75 59 55
82.748383 -211.692352 867.310730 74 59 51
194.435822 -186.674164 764.810364 140 127 112
196.530945 -187.241562 767.135010 148 135 120
206.813065 -188.386765 771.826965 205 192 178
208.114273 -188.194931 771.040955 215 204 188
209.412827 -188.003479 770.256592 224 213 196
inf -inf inf 245 237 222
inf -inf inf 247 239 224
22232.785156 -13200.530273 54083.015625 246 238 222
913.468506 -482.525909 1976.924927 242 234 218
519.624451 -220.271057 902.457947 253 243 228
518.305115 -218.966141 897.111633 254 244 229
-999.688293 -368.118134 1520.406128 254 255 254
-930.217285 -344.591766 1423.237305 254 255 254
-1008.004883 -375.661530 1551.562012 254 255 254
-1007.026306 -376.432892 1554.747925 254 255 254
-1006.043640 -377.207458 1557.947021 254 255 254
-1002.988892 -377.207458 1557.947021 254 255 254
-1001.995911 -377.985199 1561.159302 254 255 254
-998.934875 -377.985199 1561.159302 254 255 254
-997.931458 -378.766174 1564.384766 254 255 254
-996.923889 -379.550354 1567.623657 254 255 254
-1000.061768 -381.922546 1577.421387 254 255 254
-988.729431 -378.766174 1564.384766 254 255 254
-994.928589 -383.520569 1584.021484 254 255 254
-995.990051 -385.131989 1590.677002 254 255 254
-997.060486 -386.757019 1597.388672 254 255 254
-17.597864 -232.643173 960.865784 85 65 61
-15.713861 -232.643173 960.865784 106 86 82
-13.847432 -232.938782 962.086731 100 77 67
-11.945856 -232.643173 960.865784 115 92 81
-10.049101 -232.348328 959.647949 119 95 79
-8.146835 -231.760849 957.221558 114 90 76
-6.262061 -231.468216 956.012939 117 93 80
-4.327470 -228.297424 942.916870 116 91 79
-2.454210 -226.045410 933.615601 116 91 81
-0.616793 -223.564423 923.368591 114 88 78
1.189336 -222.749481 920.002747 114 85 76
4.666681 -216.693649 894.990845 104 81 64
6.383791 -215.420471 889.732361 103 77 65
67.440163 -227.165833 938.243164 72 58 52
68.348175 -224.111038 925.626221 70 56 51
69.315697 -221.404373 914.447144 73 59 53
73.452713 -217.723068 899.242554 74 58 54
74.420418 -215.420471 889.732361 76 55 53
75.808617 -214.412659 885.569885 75 58 54
77.183891 -213.414230 881.446167 73 59 53
78.728874 -212.918503 879.398682 72 58 52
80.173790 -212.179199 876.345215 72 59 52
81.514687 -211.201416 872.306702 74 58 53
83.033722 -210.715897 870.301453 76 59 55
174.554794 -274.025146 1131.782104 72 61 55
176.247025 -273.208374 1128.408691 73 61 55
208.299393 -188.216446 777.373962 121 95 83
209.393661 -187.830765 775.781006 120 96 78
inf -inf inf 246 238 223
28296.271484 -16665.710938 68832.929688 247 239 224
inf -inf inf 248 238 223
519.624451 -218.501587 902.457947 254 244 229
518.305115 -217.207138 897.111633 253 243 228
-999.688293 -365.137024 1520.406128 254 255 254
-930.217285 -341.801178 1423.237305 254 255 254
-1008.004883 -372.619324 1551.562012 254 255 254
-1007.026306 -373.384460 1554.747925 254 255 254
-1003.977844 -373.384460 1554.747925 254 255 254
-1002.988892 -374.152740 1557.947021 254 255 254
-1001.995911 -374.924194 1561.159302 254 255 254
-998.934875 -374.924194 1561.159302 254 255 254
-997.931458 -375.698822 1564.384766 254 255 254
-996.923889 -376.476685 1567.623657 254 255 254
-997.982605 -378.042053 1574.141846 254 255 254
-988.729431 -375.698822 1564.384766 254 255 254
-995.990051 -382.013092 1590.677002 254 255 254
-994.961426 -382.817322 1594.025757 254 255 254
-13.847432 -231.052383 962.086731 99 78 73
-11.945856 -230.759171 960.865784 101 81 75
-10.049101 -230.466705 959.647949 99 80 71
